ply
format ascii 1.0
element vertex 2173
property float x
property float y
property float z
property uchar red
property uchar green
property uchar blue
element face 0
end_header
0.31 -1.41 0.91 0 0 0
0.31 -1.41 0.92 0 0 0
0.31 -1.41 0.93 0 0 0
0.31 -1.41 0.94 0 0 0
0.31 -1.41 0.95 0 0 0
0.31 -1.41 0.96 0 0 0
0.31 -1.41 0.97 0 0 0
0.31 -1.41 0.98 0 0 0
0.31 -1.41 0.99 0 0 0
0.31 -1.41 1.00 0 0 0
0.31 -1.41 1.01 0 0 0
0.31 -1.41 1.02 0 0 0
0.31 -1.41 1.03 0 0 0
0.31 -1.41 1.04 0 0 0
0.31 -1.41 1.05 0 0 0
0.31 -1.41 1.06 0 0 0
0.31 -1.41 1.07 0 0 0
0.31 -1.41 1.08 0 0 0
0.31 -1.41 1.09 0 0 0
0.31 -1.41 1.10 0 0 0
0.31 -1.41 1.11 0 0 0
0.31 -1.41 1.12 0 0 0
0.31 -1.41 1.13 0 0 0
0.31 -1.41 1.14 0 0 0
0.31 -1.41 1.15 0 0 0
0.31 -1.41 1.16 0 0 0
0.31 -1.41 1.17 0 0 0
0.31 -1.41 1.18 0 0 0
0.31 -1.41 1.19 0 0 0
0.31 -1.41 1.20 0 0 0
0.31 -1.41 1.21 0 0 0
0.31 -1.41 1.22 0 0 0
0.31 -1.41 1.23 0 0 0
0.31 -1.41 1.24 0 0 0
0.31 -1.41 1.25 0 0 0
0.31 -1.41 1.26 0 0 0
0.31 -1.41 1.27 0 0 0
0.31 -1.41 1.28 0 0 0
0.31 -1.41 1.29 0 0 0
0.31 -1.41 1.30 0 0 0
0.31 -1.41 1.31 0 0 0
0.31 -1.41 1.32 0 0 0
0.31 -1.41 1.33 0 0 0
0.31 -1.41 1.34 0 0 0
0.31 -1.41 1.35 0 0 0
0.31 -1.41 1.36 0 0 0
0.31 -1.41 1.37 0 0 0
0.31 -1.41 1.38 0 0 0
0.31 -1.41 1.39 0 0 0
0.31 -1.41 1.40 0 0 0
0.31 -1.41 1.41 0 0 0
0.31 -1.40 0.45 0 0 0
0.31 -1.40 0.46 0 0 0
0.31 -1.40 0.47 0 0 0
0.31 -1.40 0.48 0 0 0
0.31 -1.40 0.49 0 0 0
0.31 -1.40 0.50 0 0 0
0.31 -1.40 0.51 0 0 0
0.31 -1.40 0.52 0 0 0
0.31 -1.40 0.53 0 0 0
0.31 -1.40 0.54 0 0 0
0.31 -1.40 0.55 0 0 0
0.31 -1.40 0.56 0 0 0
0.31 -1.40 0.57 0 0 0
0.31 -1.40 0.58 0 0 0
0.31 -1.40 0.59 0 0 0
0.31 -1.40 0.60 0 0 0
0.31 -1.40 0.61 0 0 0
0.31 -1.40 0.62 0 0 0
0.31 -1.40 0.63 0 0 0
0.31 -1.40 0.64 0 0 0
0.31 -1.40 0.65 0 0 0
0.31 -1.40 0.66 0 0 0
0.31 -1.40 0.67 0 0 0
0.31 -1.40 0.68 0 0 0
0.31 -1.40 0.69 0 0 0
0.31 -1.40 0.70 0 0 0
0.31 -1.40 0.71 0 0 0
0.31 -1.40 0.72 0 0 0
0.31 -1.40 0.73 0 0 0
0.31 -1.40 0.74 0 0 0
0.31 -1.40 0.75 0 0 0
0.31 -1.40 0.76 0 0 0
0.31 -1.40 0.77 0 0 0
0.31 -1.40 0.78 0 0 0
0.31 -1.40 0.79 0 0 0
0.31 -1.40 0.80 0 0 0
0.31 -1.40 0.81 0 0 0
0.31 -1.40 0.82 0 0 0
0.31 -1.40 0.83 0 0 0
0.31 -1.40 0.84 0 0 0
0.31 -1.40 0.85 0 0 0
0.31 -1.40 0.86 0 0 0
0.31 -1.40 0.87 0 0 0
0.31 -1.40 0.88 0 0 0
0.31 -1.40 0.89 0 0 0
0.31 -1.40 0.90 0 0 0
0.31 -1.40 0.91 0 0 0
0.31 -1.40 0.92 0 0 0
0.31 -1.40 0.93 0 0 0
0.31 -1.40 0.94 0 0 0
0.31 -1.40 0.95 0 0 0
0.31 -1.40 0.96 0 0 0
0.31 -1.40 0.97 0 0 0
0.31 -1.40 0.98 0 0 0
0.31 -1.40 0.99 0 0 0
0.31 -1.40 1.00 0 0 0
0.31 -1.40 1.01 0 0 0
0.31 -1.40 1.02 0 0 0
0.31 -1.40 1.03 0 0 0
0.31 -1.40 1.04 0 0 0
0.31 -1.40 1.05 0 0 0
0.31 -1.40 1.06 0 0 0
0.31 -1.40 1.07 0 0 0
0.31 -1.40 1.08 0 0 0
0.31 -1.40 1.09 0 0 0
0.31 -1.40 1.10 0 0 0
0.31 -1.40 1.11 0 0 0
0.31 -1.40 1.12 0 0 0
0.31 -1.40 1.13 0 0 0
0.31 -1.40 1.14 0 0 0
0.31 -1.40 1.15 0 0 0
0.31 -1.40 1.16 0 0 0
0.31 -1.40 1.17 0 0 0
0.31 -1.40 1.18 0 0 0
0.31 -1.40 1.19 0 0 0
0.31 -1.40 1.20 0 0 0
0.31 -1.40 1.21 0 0 0
0.31 -1.40 1.22 0 0 0
0.31 -1.40 1.23 0 0 0
0.31 -1.40 1.24 0 0 0
0.31 -1.40 1.25 0 0 0
0.31 -1.40 1.26 0 0 0
0.31 -1.40 1.27 0 0 0
0.31 -1.40 1.28 0 0 0
0.31 -1.40 1.29 0 0 0
0.31 -1.40 1.30 0 0 0
0.31 -1.40 1.31 0 0 0
0.31 -1.40 1.32 0 0 0
0.31 -1.40 1.33 0 0 0
0.31 -1.40 1.34 0 0 0
0.31 -1.40 1.35 0 0 0
0.31 -1.40 1.36 0 0 0
0.31 -1.40 1.37 0 0 0
0.31 -1.40 1.38 0 0 0
0.31 -1.40 1.39 0 0 0
0.31 -1.40 1.40 0 0 0
0.31 -1.40 1.41 0 0 0
0.31 -1.39 0.45 0 0 0
0.31 -1.39 0.46 0 0 0
0.31 -1.39 0.47 0 0 0
0.31 -1.39 0.48 0 0 0
0.31 -1.39 0.49 0 0 0
0.31 -1.39 0.50 0 0 0
0.31 -1.39 0.51 0 0 0
0.31 -1.39 0.52 0 0 0
0.31 -1.39 0.53 0 0 0
0.31 -1.39 0.54 0 0 0
0.31 -1.39 0.55 0 0 0
0.31 -1.39 0.56 0 0 0
0.31 -1.39 0.57 0 0 0
0.31 -1.39 0.58 0 0 0
0.31 -1.39 0.59 0 0 0
0.31 -1.39 0.60 0 0 0
0.31 -1.39 0.61 0 0 0
0.31 -1.39 0.62 0 0 0
0.31 -1.39 0.63 0 0 0
0.31 -1.39 0.64 0 0 0
0.31 -1.39 0.65 0 0 0
0.31 -1.39 0.66 0 0 0
0.31 -1.39 0.67 0 0 0
0.31 -1.39 0.68 0 0 0
0.31 -1.39 0.69 0 0 0
0.31 -1.39 0.70 0 0 0
0.31 -1.39 0.71 0 0 0
0.31 -1.39 0.72 0 0 0
0.31 -1.39 0.73 0 0 0
0.31 -1.39 0.74 0 0 0
0.31 -1.39 0.75 0 0 0
0.31 -1.39 0.76 0 0 0
0.31 -1.39 0.77 0 0 0
0.31 -1.39 0.78 0 0 0
0.31 -1.39 0.79 0 0 0
0.31 -1.39 0.80 0 0 0
0.31 -1.39 0.81 0 0 0
0.31 -1.39 0.82 0 0 0
0.31 -1.39 0.83 0 0 0
0.31 -1.39 0.84 0 0 0
0.31 -1.39 0.85 0 0 0
0.31 -1.39 0.86 0 0 0
0.31 -1.39 0.87 0 0 0
0.31 -1.39 0.88 0 0 0
0.31 -1.39 0.89 0 0 0
0.31 -1.39 0.90 0 0 0
0.31 -1.39 0.91 0 0 0
0.31 -1.39 0.92 0 0 0
0.31 -1.39 0.93 0 0 0
0.31 -1.39 0.94 0 0 0
0.31 -1.39 0.95 0 0 0
0.31 -1.39 0.96 0 0 0
0.31 -1.39 0.97 0 0 0
0.31 -1.39 0.98 0 0 0
0.31 -1.39 0.99 0 0 0
0.31 -1.39 1.00 0 0 0
0.31 -1.39 1.01 0 0 0
0.31 -1.39 1.02 0 0 0
0.31 -1.39 1.03 0 0 0
0.31 -1.39 1.04 0 0 0
0.31 -1.39 1.05 0 0 0
0.31 -1.39 1.06 0 0 0
0.31 -1.39 1.07 0 0 0
0.31 -1.39 1.08 0 0 0
0.31 -1.39 1.09 0 0 0
0.31 -1.39 1.10 0 0 0
0.31 -1.39 1.11 0 0 0
0.31 -1.39 1.12 0 0 0
0.31 -1.39 1.13 0 0 0
0.31 -1.39 1.14 0 0 0
0.31 -1.39 1.15 0 0 0
0.31 -1.39 1.16 0 0 0
0.31 -1.39 1.17 0 0 0
0.31 -1.39 1.18 0 0 0
0.31 -1.39 1.19 0 0 0
0.31 -1.39 1.20 0 0 0
0.31 -1.39 1.21 0 0 0
0.31 -1.39 1.22 0 0 0
0.31 -1.39 1.23 0 0 0
0.31 -1.39 1.24 0 0 0
0.31 -1.39 1.25 0 0 0
0.31 -1.39 1.26 0 0 0
0.31 -1.39 1.27 0 0 0
0.31 -1.39 1.28 0 0 0
0.31 -1.39 1.29 0 0 0
0.31 -1.39 1.30 0 0 0
0.31 -1.39 1.31 0 0 0
0.31 -1.39 1.32 0 0 0
0.31 -1.39 1.33 0 0 0
0.31 -1.39 1.34 0 0 0
0.31 -1.39 1.35 0 0 0
0.31 -1.39 1.36 0 0 0
0.31 -1.39 1.37 0 0 0
0.31 -1.39 1.38 0 0 0
0.31 -1.39 1.39 0 0 0
0.31 -1.39 1.40 0 0 0
0.31 -1.39 1.41 0 0 0
0.31 -1.39 1.42 0 0 0
0.31 -1.38 0.44 0 0 0
0.31 -1.38 0.45 0 0 0
0.31 -1.38 0.46 0 0 0
0.31 -1.38 0.47 0 0 0
0.31 -1.38 0.48 0 0 0
0.31 -1.38 0.49 0 0 0
0.31 -1.38 0.50 0 0 0
0.31 -1.38 0.51 0 0 0
0.31 -1.38 0.52 0 0 0
0.31 -1.38 0.53 0 0 0
0.31 -1.38 0.54 0 0 0
0.31 -1.38 0.55 0 0 0
0.31 -1.38 0.56 0 0 0
0.31 -1.38 0.57 0 0 0
0.31 -1.38 0.58 0 0 0
0.31 -1.38 0.59 0 0 0
0.31 -1.38 0.60 0 0 0
0.31 -1.38 0.61 0 0 0
0.31 -1.38 0.62 0 0 0
0.31 -1.38 0.63 0 0 0
0.31 -1.38 0.64 0 0 0
0.31 -1.38 0.65 0 0 0
0.31 -1.38 0.66 0 0 0
0.31 -1.38 0.67 0 0 0
0.31 -1.38 0.68 0 0 0
0.31 -1.38 0.69 0 0 0
0.31 -1.38 0.70 0 0 0
0.31 -1.38 0.71 0 0 0
0.31 -1.38 0.72 0 0 0
0.31 -1.38 0.73 0 0 0
0.31 -1.38 0.74 0 0 0
0.31 -1.38 0.75 0 0 0
0.31 -1.38 0.76 0 0 0
0.31 -1.38 0.77 0 0 0
0.31 -1.38 0.78 0 0 0
0.31 -1.38 0.79 0 0 0
0.31 -1.38 0.80 0 0 0
0.31 -1.38 0.81 0 0 0
0.31 -1.38 0.82 0 0 0
0.31 -1.38 0.83 0 0 0
0.31 -1.38 0.84 0 0 0
0.31 -1.38 0.85 0 0 0
0.31 -1.38 0.86 0 0 0
0.31 -1.38 0.87 0 0 0
0.31 -1.38 0.88 0 0 0
0.31 -1.38 0.89 0 0 0
0.31 -1.38 0.90 0 0 0
0.31 -1.38 0.91 0 0 0
0.31 -1.38 0.92 0 0 0
0.31 -1.38 0.93 0 0 0
0.31 -1.38 0.94 0 0 0
0.31 -1.38 0.95 0 0 0
0.31 -1.38 0.96 0 0 0
0.31 -1.38 0.97 0 0 0
0.31 -1.38 0.98 0 0 0
0.31 -1.38 0.99 0 0 0
0.31 -1.38 1.00 0 0 0
0.31 -1.38 1.01 0 0 0
0.31 -1.38 1.02 0 0 0
0.31 -1.38 1.03 0 0 0
0.31 -1.38 1.04 0 0 0
0.31 -1.38 1.05 0 0 0
0.31 -1.38 1.06 0 0 0
0.31 -1.38 1.07 0 0 0
0.31 -1.38 1.08 0 0 0
0.31 -1.38 1.09 0 0 0
0.31 -1.38 1.10 0 0 0
0.31 -1.38 1.11 0 0 0
0.31 -1.38 1.12 0 0 0
0.31 -1.38 1.13 0 0 0
0.31 -1.38 1.14 0 0 0
0.31 -1.38 1.15 0 0 0
0.31 -1.38 1.16 0 0 0
0.31 -1.38 1.17 0 0 0
0.31 -1.38 1.18 0 0 0
0.31 -1.38 1.19 0 0 0
0.31 -1.38 1.20 0 0 0
0.31 -1.38 1.21 0 0 0
0.31 -1.38 1.22 0 0 0
0.31 -1.38 1.23 0 0 0
0.31 -1.38 1.24 0 0 0
0.31 -1.38 1.25 0 0 0
0.31 -1.38 1.26 0 0 0
0.31 -1.38 1.27 0 0 0
0.31 -1.38 1.28 0 0 0
0.31 -1.38 1.29 0 0 0
0.31 -1.38 1.30 0 0 0
0.31 -1.38 1.31 0 0 0
0.31 -1.38 1.32 0 0 0
0.31 -1.38 1.33 0 0 0
0.31 -1.38 1.34 0 0 0
0.31 -1.38 1.35 0 0 0
0.31 -1.38 1.36 0 0 0
0.31 -1.38 1.37 0 0 0
0.31 -1.38 1.38 0 0 0
0.31 -1.38 1.39 0 0 0
0.31 -1.38 1.40 0 0 0
0.31 -1.38 1.41 0 0 0
0.31 -1.38 1.42 0 0 0
0.31 -1.38 1.43 0 0 0
0.31 -1.37 0.44 0 0 0
0.31 -1.37 0.45 0 0 0
0.31 -1.37 0.46 0 0 0
0.31 -1.37 0.47 0 0 0
0.31 -1.37 0.48 0 0 0
0.31 -1.37 0.49 0 0 0
0.31 -1.37 0.50 0 0 0
0.31 -1.37 0.51 0 0 0
0.31 -1.37 0.52 0 0 0
0.31 -1.37 0.53 0 0 0
0.31 -1.37 0.54 0 0 0
0.31 -1.37 0.55 0 0 0
0.31 -1.37 0.56 0 0 0
0.31 -1.37 0.57 0 0 0
0.31 -1.37 0.58 0 0 0
0.31 -1.37 0.59 0 0 0
0.31 -1.37 0.60 0 0 0
0.31 -1.37 0.61 0 0 0
0.31 -1.37 0.62 0 0 0
0.31 -1.37 0.63 0 0 0
0.31 -1.37 0.64 0 0 0
0.31 -1.37 0.65 0 0 0
0.31 -1.37 0.66 0 0 0
0.31 -1.37 0.67 0 0 0
0.31 -1.37 0.68 0 0 0
0.31 -1.37 0.69 0 0 0
0.31 -1.37 0.70 0 0 0
0.31 -1.37 0.71 0 0 0
0.31 -1.37 0.72 0 0 0
0.31 -1.37 0.73 0 0 0
0.31 -1.37 0.74 0 0 0
0.31 -1.37 0.75 0 0 0
0.31 -1.37 0.76 0 0 0
0.31 -1.37 0.77 0 0 0
0.31 -1.37 0.78 0 0 0
0.31 -1.37 0.79 0 0 0
0.31 -1.37 0.80 0 0 0
0.31 -1.37 0.81 0 0 0
0.31 -1.37 0.82 0 0 0
0.31 -1.37 0.83 0 0 0
0.31 -1.37 0.84 0 0 0
0.31 -1.37 0.85 0 0 0
0.31 -1.37 0.86 0 0 0
0.31 -1.37 0.87 0 0 0
0.31 -1.37 0.88 0 0 0
0.31 -1.37 0.89 0 0 0
0.31 -1.37 0.90 0 0 0
0.31 -1.37 0.91 0 0 0
0.31 -1.37 0.92 0 0 0
0.31 -1.37 0.93 0 0 0
0.31 -1.37 0.94 0 0 0
0.31 -1.37 0.95 0 0 0
0.31 -1.37 0.96 0 0 0
0.31 -1.37 0.97 0 0 0
0.31 -1.37 0.98 0 0 0
0.31 -1.37 0.99 0 0 0
0.31 -1.37 1.00 0 0 0
0.31 -1.37 1.01 0 0 0
0.31 -1.37 1.02 0 0 0
0.31 -1.37 1.03 0 0 0
0.31 -1.37 1.04 0 0 0
0.31 -1.37 1.05 0 0 0
0.31 -1.37 1.06 0 0 0
0.31 -1.37 1.07 0 0 0
0.31 -1.37 1.08 0 0 0
0.31 -1.37 1.09 0 0 0
0.31 -1.37 1.10 0 0 0
0.31 -1.37 1.11 0 0 0
0.31 -1.37 1.12 0 0 0
0.31 -1.37 1.13 0 0 0
0.31 -1.37 1.14 0 0 0
0.31 -1.37 1.15 0 0 0
0.31 -1.37 1.16 0 0 0
0.31 -1.37 1.17 0 0 0
0.31 -1.37 1.18 0 0 0
0.31 -1.37 1.19 0 0 0
0.31 -1.37 1.20 0 0 0
0.31 -1.37 1.21 0 0 0
0.31 -1.37 1.22 0 0 0
0.31 -1.37 1.23 0 0 0
0.31 -1.37 1.24 0 0 0
0.31 -1.37 1.25 0 0 0
0.31 -1.37 1.26 0 0 0
0.31 -1.37 1.27 0 0 0
0.31 -1.37 1.28 0 0 0
0.31 -1.37 1.29 0 0 0
0.31 -1.37 1.30 0 0 0
0.31 -1.37 1.31 0 0 0
0.31 -1.37 1.32 0 0 0
0.31 -1.37 1.33 0 0 0
0.31 -1.37 1.34 0 0 0
0.31 -1.37 1.35 0 0 0
0.31 -1.37 1.36 0 0 0
0.31 -1.37 1.37 0 0 0
0.31 -1.37 1.38 0 0 0
0.31 -1.37 1.39 0 0 0
0.31 -1.37 1.40 0 0 0
0.31 -1.37 1.41 0 0 0
0.31 -1.37 1.42 0 0 0
0.31 -1.37 1.43 0 0 0
0.31 -1.37 1.44 0 0 0
0.31 -1.37 1.45 0 0 0
0.31 -1.36 0.43 0 0 0
0.31 -1.36 0.44 0 0 0
0.31 -1.36 0.45 0 0 0
0.31 -1.36 0.46 0 0 0
0.31 -1.36 0.47 0 0 0
0.31 -1.36 0.48 0 0 0
0.31 -1.36 0.49 0 0 0
0.31 -1.36 0.50 0 0 0
0.31 -1.36 0.51 0 0 0
0.31 -1.36 0.52 0 0 0
0.31 -1.36 0.53 0 0 0
0.31 -1.36 0.54 0 0 0
0.31 -1.36 0.55 0 0 0
0.31 -1.36 0.56 0 0 0
0.31 -1.36 0.57 0 0 0
0.31 -1.36 0.58 0 0 0
0.31 -1.36 0.59 0 0 0
0.31 -1.36 0.60 0 0 0
0.31 -1.36 0.61 0 0 0
0.31 -1.36 0.62 0 0 0
0.31 -1.36 0.63 0 0 0
0.31 -1.36 0.64 0 0 0
0.31 -1.36 0.65 0 0 0
0.31 -1.36 0.66 0 0 0
0.31 -1.36 0.67 0 0 0
0.31 -1.36 0.68 0 0 0
0.31 -1.36 0.69 0 0 0
0.31 -1.36 0.70 0 0 0
0.31 -1.36 0.71 0 0 0
0.31 -1.36 0.72 0 0 0
0.31 -1.36 0.73 0 0 0
0.31 -1.36 0.74 0 0 0
0.31 -1.36 0.75 0 0 0
0.31 -1.36 0.76 0 0 0
0.31 -1.36 0.77 0 0 0
0.31 -1.36 0.78 0 0 0
0.31 -1.36 0.79 0 0 0
0.31 -1.36 0.80 0 0 0
0.31 -1.36 0.81 0 0 0
0.31 -1.36 0.82 0 0 0
0.31 -1.36 0.83 0 0 0
0.31 -1.36 0.84 0 0 0
0.31 -1.36 0.85 0 0 0
0.31 -1.36 0.86 0 0 0
0.31 -1.36 0.87 0 0 0
0.31 -1.36 0.88 0 0 0
0.31 -1.36 0.89 0 0 0
0.31 -1.36 0.90 0 0 0
0.31 -1.36 0.91 0 0 0
0.31 -1.36 0.92 0 0 0
0.31 -1.36 0.93 0 0 0
0.31 -1.36 0.94 0 0 0
0.31 -1.36 0.95 0 0 0
0.31 -1.36 0.96 0 0 0
0.31 -1.36 0.97 0 0 0
0.31 -1.36 0.98 0 0 0
0.31 -1.36 0.99 0 0 0
0.31 -1.36 1.00 0 0 0
0.31 -1.36 1.01 0 0 0
0.31 -1.36 1.02 0 0 0
0.31 -1.36 1.03 0 0 0
0.31 -1.36 1.04 0 0 0
0.31 -1.36 1.05 0 0 0
0.31 -1.36 1.06 0 0 0
0.31 -1.36 1.07 0 0 0
0.31 -1.36 1.08 0 0 0
0.31 -1.36 1.09 0 0 0
0.31 -1.36 1.10 0 0 0
0.31 -1.36 1.11 0 0 0
0.31 -1.36 1.12 0 0 0
0.31 -1.36 1.13 0 0 0
0.31 -1.36 1.14 0 0 0
0.31 -1.36 1.15 0 0 0
0.31 -1.36 1.16 0 0 0
0.31 -1.36 1.17 0 0 0
0.31 -1.36 1.18 0 0 0
0.31 -1.36 1.19 0 0 0
0.31 -1.36 1.20 0 0 0
0.31 -1.36 1.21 0 0 0
0.31 -1.36 1.22 0 0 0
0.31 -1.36 1.23 0 0 0
0.31 -1.36 1.24 0 0 0
0.31 -1.36 1.25 0 0 0
0.31 -1.36 1.26 0 0 0
0.31 -1.36 1.27 0 0 0
0.31 -1.36 1.28 0 0 0
0.31 -1.36 1.29 0 0 0
0.31 -1.36 1.30 0 0 0
0.31 -1.36 1.31 0 0 0
0.31 -1.36 1.32 0 0 0
0.31 -1.36 1.33 0 0 0
0.31 -1.36 1.34 0 0 0
0.31 -1.36 1.35 0 0 0
0.31 -1.36 1.36 0 0 0
0.31 -1.36 1.37 0 0 0
0.31 -1.36 1.38 0 0 0
0.31 -1.36 1.39 0 0 0
0.31 -1.36 1.40 0 0 0
0.31 -1.36 1.41 0 0 0
0.31 -1.36 1.42 0 0 0
0.31 -1.36 1.43 0 0 0
0.31 -1.36 1.44 0 0 0
0.31 -1.36 1.45 0 0 0
0.31 -1.36 1.46 0 0 0
0.31 -1.35 0.43 0 0 0
0.31 -1.35 0.44 0 0 0
0.31 -1.35 0.45 0 0 0
0.31 -1.35 0.46 0 0 0
0.31 -1.35 0.47 0 0 0
0.31 -1.35 0.48 0 0 0
0.31 -1.35 0.49 0 0 0
0.31 -1.35 0.50 0 0 0
0.31 -1.35 0.51 0 0 0
0.31 -1.35 0.52 0 0 0
0.31 -1.35 0.53 0 0 0
0.31 -1.35 0.54 0 0 0
0.31 -1.35 0.55 0 0 0
0.31 -1.35 0.56 0 0 0
0.31 -1.35 0.57 0 0 0
0.31 -1.35 0.58 0 0 0
0.31 -1.35 0.59 0 0 0
0.31 -1.35 0.60 0 0 0
0.31 -1.35 0.61 0 0 0
0.31 -1.35 0.62 0 0 0
0.31 -1.35 0.63 0 0 0
0.31 -1.35 0.64 0 0 0
0.31 -1.35 0.65 0 0 0
0.31 -1.35 0.66 0 0 0
0.31 -1.35 0.67 0 0 0
0.31 -1.35 0.68 0 0 0
0.31 -1.35 0.69 0 0 0
0.31 -1.35 0.70 0 0 0
0.31 -1.35 0.71 0 0 0
0.31 -1.35 0.72 0 0 0
0.31 -1.35 0.73 0 0 0
0.31 -1.35 0.74 0 0 0
0.31 -1.35 0.75 0 0 0
0.31 -1.35 0.76 0 0 0
0.31 -1.35 0.77 0 0 0
0.31 -1.35 0.78 0 0 0
0.31 -1.35 0.79 0 0 0
0.31 -1.35 0.80 0 0 0
0.31 -1.35 0.81 0 0 0
0.31 -1.35 0.82 0 0 0
0.31 -1.35 0.83 0 0 0
0.31 -1.35 0.84 0 0 0
0.31 -1.35 0.85 0 0 0
0.31 -1.35 0.86 0 0 0
0.31 -1.35 0.87 0 0 0
0.31 -1.35 0.88 0 0 0
0.31 -1.35 0.89 0 0 0
0.31 -1.35 0.90 0 0 0
0.31 -1.35 0.91 0 0 0
0.31 -1.35 0.92 0 0 0
0.31 -1.35 0.93 0 0 0
0.31 -1.35 0.94 0 0 0
0.31 -1.35 0.95 0 0 0
0.31 -1.35 0.96 0 0 0
0.31 -1.35 0.97 0 0 0
0.31 -1.35 0.98 0 0 0
0.31 -1.35 0.99 0 0 0
0.31 -1.35 1.00 0 0 0
0.31 -1.35 1.01 0 0 0
0.31 -1.35 1.02 0 0 0
0.31 -1.35 1.03 0 0 0
0.31 -1.35 1.04 0 0 0
0.31 -1.35 1.05 0 0 0
0.31 -1.35 1.06 0 0 0
0.31 -1.35 1.07 0 0 0
0.31 -1.35 1.08 0 0 0
0.31 -1.35 1.09 0 0 0
0.31 -1.35 1.10 0 0 0
0.31 -1.35 1.11 0 0 0
0.31 -1.35 1.12 0 0 0
0.31 -1.35 1.13 0 0 0
0.31 -1.35 1.14 0 0 0
0.31 -1.35 1.15 0 0 0
0.31 -1.35 1.16 0 0 0
0.31 -1.35 1.17 0 0 0
0.31 -1.35 1.18 0 0 0
0.31 -1.35 1.19 0 0 0
0.31 -1.35 1.20 0 0 0
0.31 -1.35 1.21 0 0 0
0.31 -1.35 1.22 0 0 0
0.31 -1.35 1.23 0 0 0
0.31 -1.35 1.24 0 0 0
0.31 -1.35 1.25 0 0 0
0.31 -1.35 1.26 0 0 0
0.31 -1.35 1.27 0 0 0
0.31 -1.35 1.28 0 0 0
0.31 -1.35 1.29 0 0 0
0.31 -1.35 1.30 0 0 0
0.31 -1.35 1.31 0 0 0
0.31 -1.35 1.32 0 0 0
0.31 -1.35 1.33 0 0 0
0.31 -1.35 1.34 0 0 0
0.31 -1.35 1.35 0 0 0
0.31 -1.35 1.36 0 0 0
0.31 -1.35 1.37 0 0 0
0.31 -1.35 1.38 0 0 0
0.31 -1.35 1.39 0 0 0
0.31 -1.35 1.40 0 0 0
0.31 -1.35 1.41 0 0 0
0.31 -1.35 1.42 0 0 0
0.31 -1.35 1.43 0 0 0
0.31 -1.35 1.44 0 0 0
0.31 -1.35 1.45 0 0 0
0.31 -1.34 0.43 0 0 0
0.31 -1.34 0.44 0 0 0
0.31 -1.34 0.45 0 0 0
0.31 -1.34 0.46 0 0 0
0.31 -1.34 0.47 0 0 0
0.31 -1.34 0.48 0 0 0
0.31 -1.34 0.49 0 0 0
0.31 -1.34 0.50 0 0 0
0.31 -1.34 0.51 0 0 0
0.31 -1.34 0.52 0 0 0
0.31 -1.34 0.53 0 0 0
0.31 -1.34 0.54 0 0 0
0.31 -1.34 0.55 0 0 0
0.31 -1.34 0.56 0 0 0
0.31 -1.34 0.57 0 0 0
0.31 -1.34 0.58 0 0 0
0.31 -1.34 0.59 0 0 0
0.31 -1.34 0.60 0 0 0
0.31 -1.34 0.61 0 0 0
0.31 -1.34 0.62 0 0 0
0.31 -1.34 0.63 0 0 0
0.31 -1.34 0.64 0 0 0
0.31 -1.34 0.65 0 0 0
0.31 -1.34 0.66 0 0 0
0.31 -1.34 0.67 0 0 0
0.31 -1.34 0.68 0 0 0
0.31 -1.34 0.69 0 0 0
0.31 -1.34 0.70 0 0 0
0.31 -1.34 0.71 0 0 0
0.31 -1.34 0.72 0 0 0
0.31 -1.34 0.73 0 0 0
0.31 -1.34 0.74 0 0 0
0.31 -1.34 0.75 0 0 0
0.31 -1.34 0.76 0 0 0
0.31 -1.34 0.77 0 0 0
0.31 -1.34 0.78 0 0 0
0.31 -1.34 0.79 0 0 0
0.31 -1.34 0.80 0 0 0
0.31 -1.34 0.81 0 0 0
0.31 -1.34 0.82 0 0 0
0.31 -1.34 0.83 0 0 0
0.31 -1.34 0.84 0 0 0
0.31 -1.34 0.85 0 0 0
0.31 -1.34 0.86 0 0 0
0.31 -1.34 0.87 0 0 0
0.31 -1.34 0.88 0 0 0
0.31 -1.34 0.89 0 0 0
0.31 -1.34 0.90 0 0 0
0.31 -1.34 0.91 0 0 0
0.31 -1.34 0.92 0 0 0
0.31 -1.34 0.93 0 0 0
0.31 -1.34 0.94 0 0 0
0.31 -1.34 0.95 0 0 0
0.31 -1.34 0.96 0 0 0
0.31 -1.34 0.97 0 0 0
0.31 -1.34 0.98 0 0 0
0.31 -1.34 0.99 0 0 0
0.31 -1.34 1.00 0 0 0
0.31 -1.34 1.01 0 0 0
0.31 -1.34 1.02 0 0 0
0.31 -1.34 1.03 0 0 0
0.31 -1.34 1.04 0 0 0
0.31 -1.34 1.05 0 0 0
0.31 -1.34 1.06 0 0 0
0.31 -1.34 1.07 0 0 0
0.31 -1.34 1.08 0 0 0
0.31 -1.34 1.09 0 0 0
0.31 -1.34 1.10 0 0 0
0.31 -1.34 1.11 0 0 0
0.31 -1.34 1.12 0 0 0
0.31 -1.34 1.13 0 0 0
0.31 -1.34 1.14 0 0 0
0.31 -1.34 1.15 0 0 0
0.31 -1.34 1.16 0 0 0
0.31 -1.34 1.17 0 0 0
0.31 -1.34 1.18 0 0 0
0.31 -1.34 1.19 0 0 0
0.31 -1.34 1.20 0 0 0
0.31 -1.34 1.21 0 0 0
0.31 -1.34 1.22 0 0 0
0.31 -1.34 1.23 0 0 0
0.31 -1.34 1.24 0 0 0
0.31 -1.34 1.25 0 0 0
0.31 -1.34 1.26 0 0 0
0.31 -1.34 1.27 0 0 0
0.31 -1.34 1.28 0 0 0
0.31 -1.34 1.29 0 0 0
0.31 -1.34 1.30 0 0 0
0.31 -1.34 1.31 0 0 0
0.31 -1.34 1.32 0 0 0
0.31 -1.34 1.33 0 0 0
0.31 -1.34 1.34 0 0 0
0.31 -1.34 1.35 0 0 0
0.31 -1.34 1.36 0 0 0
0.31 -1.34 1.37 0 0 0
0.31 -1.34 1.38 0 0 0
0.31 -1.34 1.39 0 0 0
0.31 -1.34 1.40 0 0 0
0.31 -1.34 1.41 0 0 0
0.31 -1.34 1.42 0 0 0
0.31 -1.34 1.43 0 0 0
0.31 -1.34 1.44 0 0 0
0.31 -1.34 1.45 0 0 0
0.31 -1.33 0.42 0 0 0
0.31 -1.33 0.43 0 0 0
0.31 -1.33 0.44 0 0 0
0.31 -1.33 0.45 0 0 0
0.31 -1.33 0.46 0 0 0
0.31 -1.33 0.47 0 0 0
0.31 -1.33 0.48 0 0 0
0.31 -1.33 0.49 0 0 0
0.31 -1.33 0.50 0 0 0
0.31 -1.33 0.51 0 0 0
0.31 -1.33 0.52 0 0 0
0.31 -1.33 0.53 0 0 0
0.31 -1.33 0.54 0 0 0
0.31 -1.33 0.55 0 0 0
0.31 -1.33 0.56 0 0 0
0.31 -1.33 0.57 0 0 0
0.31 -1.33 0.58 0 0 0
0.31 -1.33 0.59 0 0 0
0.31 -1.33 0.60 0 0 0
0.31 -1.33 0.61 0 0 0
0.31 -1.33 0.62 0 0 0
0.31 -1.33 0.63 0 0 0
0.31 -1.33 0.64 0 0 0
0.31 -1.33 0.65 0 0 0
0.31 -1.33 0.66 0 0 0
0.31 -1.33 0.67 0 0 0
0.31 -1.33 0.68 0 0 0
0.31 -1.33 0.69 0 0 0
0.31 -1.33 0.70 0 0 0
0.31 -1.33 0.71 0 0 0
0.31 -1.33 0.72 0 0 0
0.31 -1.33 0.73 0 0 0
0.31 -1.33 0.74 0 0 0
0.31 -1.33 0.75 0 0 0
0.31 -1.33 0.76 0 0 0
0.31 -1.33 0.77 0 0 0
0.31 -1.33 0.78 0 0 0
0.31 -1.33 0.79 0 0 0
0.31 -1.33 0.80 0 0 0
0.31 -1.33 0.81 0 0 0
0.31 -1.33 0.82 0 0 0
0.31 -1.33 0.83 0 0 0
0.31 -1.33 0.84 0 0 0
0.31 -1.33 0.85 0 0 0
0.31 -1.33 0.86 0 0 0
0.31 -1.33 0.87 0 0 0
0.31 -1.33 0.88 0 0 0
0.31 -1.33 0.89 0 0 0
0.31 -1.33 0.90 0 0 0
0.31 -1.33 0.91 0 0 0
0.31 -1.33 0.92 0 0 0
0.31 -1.33 0.93 0 0 0
0.31 -1.33 0.94 0 0 0
0.31 -1.33 0.95 0 0 0
0.31 -1.33 0.96 0 0 0
0.31 -1.33 0.97 0 0 0
0.31 -1.33 0.98 0 0 0
0.31 -1.33 0.99 0 0 0
0.31 -1.33 1.00 0 0 0
0.31 -1.33 1.01 0 0 0
0.31 -1.33 1.02 0 0 0
0.31 -1.33 1.03 0 0 0
0.31 -1.33 1.04 0 0 0
0.31 -1.33 1.05 0 0 0
0.31 -1.33 1.06 0 0 0
0.31 -1.33 1.07 0 0 0
0.31 -1.33 1.08 0 0 0
0.31 -1.33 1.09 0 0 0
0.31 -1.33 1.10 0 0 0
0.31 -1.33 1.11 0 0 0
0.31 -1.33 1.12 0 0 0
0.31 -1.33 1.13 0 0 0
0.31 -1.33 1.14 0 0 0
0.31 -1.33 1.15 0 0 0
0.31 -1.33 1.16 0 0 0
0.31 -1.33 1.17 0 0 0
0.31 -1.33 1.18 0 0 0
0.31 -1.33 1.19 0 0 0
0.31 -1.33 1.20 0 0 0
0.31 -1.33 1.21 0 0 0
0.31 -1.33 1.22 0 0 0
0.31 -1.33 1.23 0 0 0
0.31 -1.33 1.24 0 0 0
0.31 -1.33 1.25 0 0 0
0.31 -1.33 1.26 0 0 0
0.31 -1.33 1.27 0 0 0
0.31 -1.33 1.28 0 0 0
0.31 -1.33 1.29 0 0 0
0.31 -1.33 1.30 0 0 0
0.31 -1.33 1.31 0 0 0
0.31 -1.33 1.32 0 0 0
0.31 -1.33 1.33 0 0 0
0.31 -1.33 1.34 0 0 0
0.31 -1.33 1.35 0 0 0
0.31 -1.33 1.36 0 0 0
0.31 -1.33 1.37 0 0 0
0.31 -1.33 1.38 0 0 0
0.31 -1.33 1.39 0 0 0
0.31 -1.33 1.40 0 0 0
0.31 -1.33 1.41 0 0 0
0.31 -1.33 1.42 0 0 0
0.31 -1.33 1.43 0 0 0
0.31 -1.33 1.44 0 0 0
0.31 -1.33 1.45 0 0 0
0.31 -1.32 0.42 0 0 0
0.31 -1.32 0.43 0 0 0
0.31 -1.32 0.44 0 0 0
0.31 -1.32 0.45 0 0 0
0.31 -1.32 0.46 0 0 0
0.31 -1.32 0.47 0 0 0
0.31 -1.32 0.48 0 0 0
0.31 -1.32 0.49 0 0 0
0.31 -1.32 0.50 0 0 0
0.31 -1.32 0.51 0 0 0
0.31 -1.32 0.52 0 0 0
0.31 -1.32 0.53 0 0 0
0.31 -1.32 0.54 0 0 0
0.31 -1.32 0.55 0 0 0
0.31 -1.32 0.56 0 0 0
0.31 -1.32 0.57 0 0 0
0.31 -1.32 0.58 0 0 0
0.31 -1.32 0.59 0 0 0
0.31 -1.32 0.60 0 0 0
0.31 -1.32 0.61 0 0 0
0.31 -1.32 0.62 0 0 0
0.31 -1.32 0.63 0 0 0
0.31 -1.32 0.64 0 0 0
0.31 -1.32 0.65 0 0 0
0.31 -1.32 0.66 0 0 0
0.31 -1.32 0.67 0 0 0
0.31 -1.32 0.68 0 0 0
0.31 -1.32 0.69 0 0 0
0.31 -1.32 0.70 0 0 0
0.31 -1.32 0.71 0 0 0
0.31 -1.32 0.72 0 0 0
0.31 -1.32 0.73 0 0 0
0.31 -1.32 0.74 0 0 0
0.31 -1.32 0.75 0 0 0
0.31 -1.32 0.76 0 0 0
0.31 -1.32 0.77 0 0 0
0.31 -1.32 0.78 0 0 0
0.31 -1.32 0.79 0 0 0
0.31 -1.32 0.80 0 0 0
0.31 -1.32 0.81 0 0 0
0.31 -1.32 0.82 0 0 0
0.31 -1.32 0.83 0 0 0
0.31 -1.32 0.84 0 0 0
0.31 -1.32 0.85 0 0 0
0.31 -1.32 0.86 0 0 0
0.31 -1.32 0.87 0 0 0
0.31 -1.32 0.88 0 0 0
0.31 -1.32 0.89 0 0 0
0.31 -1.32 0.90 0 0 0
0.31 -1.32 0.91 0 0 0
0.31 -1.32 0.92 0 0 0
0.31 -1.32 0.93 0 0 0
0.31 -1.32 0.94 0 0 0
0.31 -1.32 0.95 0 0 0
0.31 -1.32 0.96 0 0 0
0.31 -1.32 0.97 0 0 0
0.31 -1.32 0.98 0 0 0
0.31 -1.32 0.99 0 0 0
0.31 -1.32 1.00 0 0 0
0.31 -1.32 1.01 0 0 0
0.31 -1.32 1.02 0 0 0
0.31 -1.32 1.03 0 0 0
0.31 -1.32 1.04 0 0 0
0.31 -1.32 1.05 0 0 0
0.31 -1.32 1.06 0 0 0
0.31 -1.32 1.07 0 0 0
0.31 -1.32 1.08 0 0 0
0.31 -1.32 1.09 0 0 0
0.31 -1.32 1.10 0 0 0
0.31 -1.32 1.11 0 0 0
0.31 -1.32 1.12 0 0 0
0.31 -1.32 1.13 0 0 0
0.31 -1.32 1.14 0 0 0
0.31 -1.32 1.15 0 0 0
0.31 -1.32 1.16 0 0 0
0.31 -1.32 1.17 0 0 0
0.31 -1.32 1.18 0 0 0
0.31 -1.32 1.19 0 0 0
0.31 -1.32 1.20 0 0 0
0.31 -1.32 1.21 0 0 0
0.31 -1.32 1.22 0 0 0
0.31 -1.32 1.23 0 0 0
0.31 -1.32 1.24 0 0 0
0.31 -1.32 1.25 0 0 0
0.31 -1.32 1.26 0 0 0
0.31 -1.32 1.27 0 0 0
0.31 -1.32 1.28 0 0 0
0.31 -1.32 1.29 0 0 0
0.31 -1.32 1.30 0 0 0
0.31 -1.32 1.31 0 0 0
0.31 -1.32 1.32 0 0 0
0.31 -1.32 1.33 0 0 0
0.31 -1.32 1.34 0 0 0
0.31 -1.32 1.35 0 0 0
0.31 -1.32 1.36 0 0 0
0.31 -1.32 1.37 0 0 0
0.31 -1.32 1.38 0 0 0
0.31 -1.32 1.39 0 0 0
0.31 -1.32 1.40 0 0 0
0.31 -1.32 1.41 0 0 0
0.31 -1.32 1.42 0 0 0
0.31 -1.32 1.43 0 0 0
0.31 -1.32 1.44 0 0 0
0.31 -1.32 1.45 0 0 0
0.31 -1.31 0.42 0 0 0
0.31 -1.31 0.43 0 0 0
0.31 -1.31 0.44 0 0 0
0.31 -1.31 0.45 0 0 0
0.31 -1.31 0.46 0 0 0
0.31 -1.31 0.47 0 0 0
0.31 -1.31 0.48 0 0 0
0.31 -1.31 0.49 0 0 0
0.31 -1.31 0.50 0 0 0
0.31 -1.31 0.51 0 0 0
0.31 -1.31 0.52 0 0 0
0.31 -1.31 0.53 0 0 0
0.31 -1.31 0.54 0 0 0
0.31 -1.31 0.55 0 0 0
0.31 -1.31 0.56 0 0 0
0.31 -1.31 0.57 0 0 0
0.31 -1.31 0.58 0 0 0
0.31 -1.31 0.59 0 0 0
0.31 -1.31 0.60 0 0 0
0.31 -1.31 0.61 0 0 0
0.31 -1.31 0.62 0 0 0
0.31 -1.31 0.63 0 0 0
0.31 -1.31 0.64 0 0 0
0.31 -1.31 0.65 0 0 0
0.31 -1.31 0.66 0 0 0
0.31 -1.31 0.67 0 0 0
0.31 -1.31 0.68 0 0 0
0.31 -1.31 0.69 0 0 0
0.31 -1.31 0.70 0 0 0
0.31 -1.31 0.71 0 0 0
0.31 -1.31 0.72 0 0 0
0.31 -1.31 0.73 0 0 0
0.31 -1.31 0.74 0 0 0
0.31 -1.31 0.75 0 0 0
0.31 -1.31 0.76 0 0 0
0.31 -1.31 0.77 0 0 0
0.31 -1.31 0.78 0 0 0
0.31 -1.31 0.79 0 0 0
0.31 -1.31 0.80 0 0 0
0.31 -1.31 0.81 0 0 0
0.31 -1.31 0.82 0 0 0
0.31 -1.31 0.83 0 0 0
0.31 -1.31 0.84 0 0 0
0.31 -1.31 0.85 0 0 0
0.31 -1.31 0.86 0 0 0
0.31 -1.31 0.87 0 0 0
0.31 -1.31 0.88 0 0 0
0.31 -1.31 0.89 0 0 0
0.31 -1.31 0.90 0 0 0
0.31 -1.31 0.91 0 0 0
0.31 -1.31 0.92 0 0 0
0.31 -1.31 0.93 0 0 0
0.31 -1.31 0.94 0 0 0
0.31 -1.31 0.95 0 0 0
0.31 -1.31 0.96 0 0 0
0.31 -1.31 0.97 0 0 0
0.31 -1.31 0.98 0 0 0
0.31 -1.31 0.99 0 0 0
0.31 -1.31 1.00 0 0 0
0.31 -1.31 1.01 0 0 0
0.31 -1.31 1.02 0 0 0
0.31 -1.31 1.03 0 0 0
0.31 -1.31 1.04 0 0 0
0.31 -1.31 1.05 0 0 0
0.31 -1.31 1.06 0 0 0
0.31 -1.31 1.07 0 0 0
0.31 -1.31 1.08 0 0 0
0.31 -1.31 1.09 0 0 0
0.31 -1.31 1.10 0 0 0
0.31 -1.31 1.11 0 0 0
0.31 -1.31 1.12 0 0 0
0.31 -1.31 1.13 0 0 0
0.31 -1.31 1.14 0 0 0
0.31 -1.31 1.15 0 0 0
0.31 -1.31 1.16 0 0 0
0.31 -1.31 1.17 0 0 0
0.31 -1.31 1.18 0 0 0
0.31 -1.31 1.19 0 0 0
0.31 -1.31 1.20 0 0 0
0.31 -1.31 1.21 0 0 0
0.31 -1.31 1.22 0 0 0
0.31 -1.31 1.23 0 0 0
0.31 -1.31 1.24 0 0 0
0.31 -1.31 1.25 0 0 0
0.31 -1.31 1.26 0 0 0
0.31 -1.31 1.27 0 0 0
0.31 -1.31 1.28 0 0 0
0.31 -1.31 1.29 0 0 0
0.31 -1.31 1.30 0 0 0
0.31 -1.31 1.31 0 0 0
0.31 -1.31 1.32 0 0 0
0.31 -1.31 1.33 0 0 0
0.31 -1.31 1.34 0 0 0
0.31 -1.31 1.35 0 0 0
0.31 -1.31 1.36 0 0 0
0.31 -1.31 1.37 0 0 0
0.31 -1.31 1.38 0 0 0
0.31 -1.31 1.39 0 0 0
0.31 -1.31 1.40 0 0 0
0.31 -1.31 1.41 0 0 0
0.31 -1.31 1.42 0 0 0
0.31 -1.31 1.43 0 0 0
0.31 -1.31 1.44 0 0 0
0.31 -1.31 1.45 0 0 0
0.31 -1.30 0.42 0 0 0
0.31 -1.30 0.43 0 0 0
0.31 -1.30 0.44 0 0 0
0.31 -1.30 0.45 0 0 0
0.31 -1.30 0.46 0 0 0
0.31 -1.30 0.47 0 0 0
0.31 -1.30 0.48 0 0 0
0.31 -1.30 0.49 0 0 0
0.31 -1.30 0.50 0 0 0
0.31 -1.30 0.51 0 0 0
0.31 -1.30 0.52 0 0 0
0.31 -1.30 0.53 0 0 0
0.31 -1.30 0.54 0 0 0
0.31 -1.30 0.55 0 0 0
0.31 -1.30 0.56 0 0 0
0.31 -1.30 0.57 0 0 0
0.31 -1.30 0.58 0 0 0
0.31 -1.30 0.59 0 0 0
0.31 -1.30 0.60 0 0 0
0.31 -1.30 0.61 0 0 0
0.31 -1.30 0.62 0 0 0
0.31 -1.30 0.63 0 0 0
0.31 -1.30 0.64 0 0 0
0.31 -1.30 0.65 0 0 0
0.31 -1.30 0.66 0 0 0
0.31 -1.30 0.67 0 0 0
0.31 -1.30 0.68 0 0 0
0.31 -1.30 0.69 0 0 0
0.31 -1.30 0.70 0 0 0
0.31 -1.30 0.71 0 0 0
0.31 -1.30 0.72 0 0 0
0.31 -1.30 0.73 0 0 0
0.31 -1.30 0.74 0 0 0
0.31 -1.30 0.75 0 0 0
0.31 -1.30 0.76 0 0 0
0.31 -1.30 0.77 0 0 0
0.31 -1.30 0.78 0 0 0
0.31 -1.30 0.79 0 0 0
0.31 -1.30 0.80 0 0 0
0.31 -1.30 0.81 0 0 0
0.31 -1.30 0.82 0 0 0
0.31 -1.30 0.83 0 0 0
0.31 -1.30 0.84 0 0 0
0.31 -1.30 0.85 0 0 0
0.31 -1.30 0.86 0 0 0
0.31 -1.30 0.87 0 0 0
0.31 -1.30 0.88 0 0 0
0.31 -1.30 0.89 0 0 0
0.31 -1.30 0.90 0 0 0
0.31 -1.30 0.91 0 0 0
0.31 -1.30 0.92 0 0 0
0.31 -1.30 0.93 0 0 0
0.31 -1.30 0.94 0 0 0
0.31 -1.30 0.95 0 0 0
0.31 -1.30 0.96 0 0 0
0.31 -1.30 0.97 0 0 0
0.31 -1.30 0.98 0 0 0
0.31 -1.30 0.99 0 0 0
0.31 -1.30 1.00 0 0 0
0.31 -1.30 1.01 0 0 0
0.31 -1.30 1.02 0 0 0
0.31 -1.30 1.08 0 0 0
0.31 -1.30 1.09 0 0 0
0.31 -1.30 1.10 0 0 0
0.31 -1.30 1.11 0 0 0
0.31 -1.30 1.12 0 0 0
0.31 -1.30 1.13 0 0 0
0.31 -1.30 1.14 0 0 0
0.31 -1.30 1.15 0 0 0
0.31 -1.30 1.16 0 0 0
0.31 -1.30 1.17 0 0 0
0.31 -1.30 1.18 0 0 0
0.31 -1.30 1.19 0 0 0
0.31 -1.30 1.20 0 0 0
0.31 -1.30 1.21 0 0 0
0.31 -1.30 1.22 0 0 0
0.31 -1.30 1.23 0 0 0
0.31 -1.30 1.24 0 0 0
0.31 -1.30 1.25 0 0 0
0.31 -1.30 1.26 0 0 0
0.31 -1.30 1.27 0 0 0
0.31 -1.30 1.28 0 0 0
0.31 -1.30 1.29 0 0 0
0.31 -1.30 1.30 0 0 0
0.31 -1.30 1.31 0 0 0
0.31 -1.30 1.32 0 0 0
0.31 -1.30 1.33 0 0 0
0.31 -1.30 1.34 0 0 0
0.31 -1.30 1.35 0 0 0
0.31 -1.30 1.36 0 0 0
0.31 -1.30 1.37 0 0 0
0.31 -1.30 1.38 0 0 0
0.31 -1.30 1.39 0 0 0
0.31 -1.30 1.40 0 0 0
0.31 -1.30 1.41 0 0 0
0.31 -1.30 1.42 0 0 0
0.31 -1.30 1.43 0 0 0
0.31 -1.30 1.44 0 0 0
0.31 -1.30 1.45 0 0 0
0.31 -1.30 1.46 0 0 0
0.31 -1.30 1.51 0 0 0
0.31 -1.30 1.53 0 0 0
0.31 -1.29 0.43 0 0 0
0.31 -1.29 0.44 0 0 0
0.31 -1.29 0.45 0 0 0
0.31 -1.29 0.46 0 0 0
0.31 -1.29 0.47 0 0 0
0.31 -1.29 0.48 0 0 0
0.31 -1.29 0.49 0 0 0
0.31 -1.29 0.50 0 0 0
0.31 -1.29 0.51 0 0 0
0.31 -1.29 0.52 0 0 0
0.31 -1.29 0.53 0 0 0
0.31 -1.29 0.54 0 0 0
0.31 -1.29 0.55 0 0 0
0.31 -1.29 0.56 0 0 0
0.31 -1.29 0.57 0 0 0
0.31 -1.29 0.58 0 0 0
0.31 -1.29 0.59 0 0 0
0.31 -1.29 0.60 0 0 0
0.31 -1.29 0.61 0 0 0
0.31 -1.29 0.62 0 0 0
0.31 -1.29 0.63 0 0 0
0.31 -1.29 0.64 0 0 0
0.31 -1.29 0.65 0 0 0
0.31 -1.29 0.66 0 0 0
0.31 -1.29 0.67 0 0 0
0.31 -1.29 0.68 0 0 0
0.31 -1.29 0.69 0 0 0
0.31 -1.29 0.70 0 0 0
0.31 -1.29 0.71 0 0 0
0.31 -1.29 0.72 0 0 0
0.31 -1.29 0.73 0 0 0
0.31 -1.29 0.74 0 0 0
0.31 -1.29 0.75 0 0 0
0.31 -1.29 0.76 0 0 0
0.31 -1.29 0.77 0 0 0
0.31 -1.29 0.78 0 0 0
0.31 -1.29 0.79 0 0 0
0.31 -1.29 0.80 0 0 0
0.31 -1.29 0.81 0 0 0
0.31 -1.29 0.82 0 0 0
0.31 -1.29 0.83 0 0 0
0.31 -1.29 0.84 0 0 0
0.31 -1.29 0.85 0 0 0
0.31 -1.29 0.86 0 0 0
0.31 -1.29 0.87 0 0 0
0.31 -1.29 0.88 0 0 0
0.31 -1.29 0.89 0 0 0
0.31 -1.29 0.90 0 0 0
0.31 -1.29 0.91 0 0 0
0.31 -1.29 0.92 0 0 0
0.31 -1.29 0.93 0 0 0
0.31 -1.29 0.94 0 0 0
0.31 -1.29 0.95 0 0 0
0.31 -1.29 0.96 0 0 0
0.31 -1.29 0.97 0 0 0
0.31 -1.29 0.98 0 0 0
0.31 -1.29 0.99 0 0 0
0.31 -1.29 1.10 0 0 0
0.31 -1.29 1.11 0 0 0
0.31 -1.29 1.12 0 0 0
0.31 -1.29 1.13 0 0 0
0.31 -1.29 1.14 0 0 0
0.31 -1.29 1.15 0 0 0
0.31 -1.29 1.16 0 0 0
0.31 -1.29 1.17 0 0 0
0.31 -1.29 1.18 0 0 0
0.31 -1.29 1.19 0 0 0
0.31 -1.29 1.20 0 0 0
0.31 -1.29 1.21 0 0 0
0.31 -1.29 1.22 0 0 0
0.31 -1.29 1.23 0 0 0
0.31 -1.29 1.24 0 0 0
0.31 -1.29 1.25 0 0 0
0.31 -1.29 1.26 0 0 0
0.31 -1.29 1.27 0 0 0
0.31 -1.29 1.28 0 0 0
0.31 -1.29 1.29 0 0 0
0.31 -1.29 1.30 0 0 0
0.31 -1.29 1.31 0 0 0
0.31 -1.29 1.32 0 0 0
0.31 -1.29 1.33 0 0 0
0.31 -1.29 1.34 0 0 0
0.31 -1.29 1.35 0 0 0
0.31 -1.29 1.36 0 0 0
0.31 -1.29 1.37 0 0 0
0.31 -1.29 1.38 0 0 0
0.31 -1.29 1.39 0 0 0
0.31 -1.29 1.40 0 0 0
0.31 -1.29 1.41 0 0 0
0.31 -1.29 1.42 0 0 0
0.31 -1.29 1.43 0 0 0
0.31 -1.29 1.44 0 0 0
0.31 -1.29 1.45 0 0 0
0.31 -1.29 1.46 0 0 0
0.31 -1.29 1.49 0 0 0
0.31 -1.29 1.51 0 0 0
0.31 -1.29 1.53 0 0 0
0.31 -1.29 1.54 0 0 0
0.31 -1.28 0.44 0 0 0
0.31 -1.28 0.45 0 0 0
0.31 -1.28 0.46 0 0 0
0.31 -1.28 0.47 0 0 0
0.31 -1.28 0.48 0 0 0
0.31 -1.28 0.49 0 0 0
0.31 -1.28 0.50 0 0 0
0.31 -1.28 0.51 0 0 0
0.31 -1.28 0.52 0 0 0
0.31 -1.28 0.53 0 0 0
0.31 -1.28 0.54 0 0 0
0.31 -1.28 0.55 0 0 0
0.31 -1.28 0.56 0 0 0
0.31 -1.28 0.57 0 0 0
0.31 -1.28 0.58 0 0 0
0.31 -1.28 0.59 0 0 0
0.31 -1.28 0.60 0 0 0
0.31 -1.28 0.61 0 0 0
0.31 -1.28 0.62 0 0 0
0.31 -1.28 0.63 0 0 0
0.31 -1.28 0.64 0 0 0
0.31 -1.28 0.65 0 0 0
0.31 -1.28 0.66 0 0 0
0.31 -1.28 0.67 0 0 0
0.31 -1.28 0.68 0 0 0
0.31 -1.28 0.69 0 0 0
0.31 -1.28 0.70 0 0 0
0.31 -1.28 0.71 0 0 0
0.31 -1.28 0.72 0 0 0
0.31 -1.28 0.73 0 0 0
0.31 -1.28 0.74 0 0 0
0.31 -1.28 0.75 0 0 0
0.31 -1.28 0.76 0 0 0
0.31 -1.28 0.77 0 0 0
0.31 -1.28 0.78 0 0 0
0.31 -1.28 0.79 0 0 0
0.31 -1.28 0.80 0 0 0
0.31 -1.28 0.81 0 0 0
0.31 -1.28 0.82 0 0 0
0.31 -1.28 0.83 0 0 0
0.31 -1.28 0.84 0 0 0
0.31 -1.28 0.85 0 0 0
0.31 -1.28 0.86 0 0 0
0.31 -1.28 0.87 0 0 0
0.31 -1.28 0.88 0 0 0
0.31 -1.28 0.89 0 0 0
0.31 -1.28 0.90 0 0 0
0.31 -1.28 0.91 0 0 0
0.31 -1.28 0.92 0 0 0
0.31 -1.28 0.93 0 0 0
0.31 -1.28 0.94 0 0 0
0.31 -1.28 0.95 0 0 0
0.31 -1.28 0.96 0 0 0
0.31 -1.28 1.14 0 0 0
0.31 -1.28 1.15 0 0 0
0.31 -1.28 1.16 0 0 0
0.31 -1.28 1.17 0 0 0
0.31 -1.28 1.18 0 0 0
0.31 -1.28 1.19 0 0 0
0.31 -1.28 1.20 0 0 0
0.31 -1.28 1.21 0 0 0
0.31 -1.28 1.22 0 0 0
0.31 -1.28 1.23 0 0 0
0.31 -1.28 1.24 0 0 0
0.31 -1.28 1.25 0 0 0
0.31 -1.28 1.26 0 0 0
0.31 -1.28 1.27 0 0 0
0.31 -1.28 1.28 0 0 0
0.31 -1.28 1.29 0 0 0
0.31 -1.28 1.30 0 0 0
0.31 -1.28 1.31 0 0 0
0.31 -1.28 1.32 0 0 0
0.31 -1.28 1.33 0 0 0
0.31 -1.28 1.34 0 0 0
0.31 -1.28 1.35 0 0 0
0.31 -1.28 1.36 0 0 0
0.31 -1.28 1.37 0 0 0
0.31 -1.28 1.38 0 0 0
0.31 -1.28 1.39 0 0 0
0.31 -1.28 1.40 0 0 0
0.31 -1.28 1.41 0 0 0
0.31 -1.28 1.42 0 0 0
0.31 -1.28 1.43 0 0 0
0.31 -1.28 1.44 0 0 0
0.31 -1.28 1.45 0 0 0
0.31 -1.28 1.46 0 0 0
0.31 -1.28 1.47 0 0 0
0.31 -1.28 1.51 0 0 0
0.31 -1.28 1.52 0 0 0
0.31 -1.28 1.53 0 0 0
0.31 -1.28 1.54 0 0 0
0.31 -1.28 1.55 0 0 0
0.31 -1.28 1.56 0 0 0
0.31 -1.28 1.57 0 0 0
0.31 -1.27 0.44 0 0 0
0.31 -1.27 0.45 0 0 0
0.31 -1.27 0.46 0 0 0
0.31 -1.27 0.47 0 0 0
0.31 -1.27 0.48 0 0 0
0.31 -1.27 0.49 0 0 0
0.31 -1.27 0.50 0 0 0
0.31 -1.27 0.51 0 0 0
0.31 -1.27 0.52 0 0 0
0.31 -1.27 0.53 0 0 0
0.31 -1.27 0.54 0 0 0
0.31 -1.27 0.55 0 0 0
0.31 -1.27 0.56 0 0 0
0.31 -1.27 0.57 0 0 0
0.31 -1.27 0.58 0 0 0
0.31 -1.27 0.59 0 0 0
0.31 -1.27 0.61 0 0 0
0.31 -1.27 0.62 0 0 0
0.31 -1.27 0.63 0 0 0
0.31 -1.27 0.64 0 0 0
0.31 -1.27 0.65 0 0 0
0.31 -1.27 0.66 0 0 0
0.31 -1.27 0.67 0 0 0
0.31 -1.27 0.68 0 0 0
0.31 -1.27 0.69 0 0 0
0.31 -1.27 0.70 0 0 0
0.31 -1.27 0.71 0 0 0
0.31 -1.27 0.72 0 0 0
0.31 -1.27 0.73 0 0 0
0.31 -1.27 0.74 0 0 0
0.31 -1.27 0.75 0 0 0
0.31 -1.27 0.76 0 0 0
0.31 -1.27 0.77 0 0 0
0.31 -1.27 0.78 0 0 0
0.31 -1.27 0.79 0 0 0
0.31 -1.27 0.80 0 0 0
0.31 -1.27 0.81 0 0 0
0.31 -1.27 0.82 0 0 0
0.31 -1.27 0.83 0 0 0
0.31 -1.27 0.84 0 0 0
0.31 -1.27 0.85 0 0 0
0.31 -1.27 0.86 0 0 0
0.31 -1.27 0.87 0 0 0
0.31 -1.27 0.88 0 0 0
0.31 -1.27 0.89 0 0 0
0.31 -1.27 0.90 0 0 0
0.31 -1.27 0.91 0 0 0
0.31 -1.27 0.92 0 0 0
0.31 -1.27 0.93 0 0 0
0.31 -1.27 0.94 0 0 0
0.31 -1.27 1.16 0 0 0
0.31 -1.27 1.17 0 0 0
0.31 -1.27 1.18 0 0 0
0.31 -1.27 1.19 0 0 0
0.31 -1.27 1.20 0 0 0
0.31 -1.27 1.21 0 0 0
0.31 -1.27 1.22 0 0 0
0.31 -1.27 1.23 0 0 0
0.31 -1.27 1.24 0 0 0
0.31 -1.27 1.25 0 0 0
0.31 -1.27 1.26 0 0 0
0.31 -1.27 1.27 0 0 0
0.31 -1.27 1.28 0 0 0
0.31 -1.27 1.29 0 0 0
0.31 -1.27 1.30 0 0 0
0.31 -1.27 1.31 0 0 0
0.31 -1.27 1.32 0 0 0
0.31 -1.27 1.33 0 0 0
0.31 -1.27 1.34 0 0 0
0.31 -1.27 1.35 0 0 0
0.31 -1.27 1.36 0 0 0
0.31 -1.27 1.37 0 0 0
0.31 -1.27 1.38 0 0 0
0.31 -1.27 1.39 0 0 0
0.31 -1.27 1.40 0 0 0
0.31 -1.27 1.41 0 0 0
0.31 -1.27 1.42 0 0 0
0.31 -1.27 1.43 0 0 0
0.31 -1.27 1.44 0 0 0
0.31 -1.27 1.45 0 0 0
0.31 -1.27 1.46 0 0 0
0.31 -1.27 1.51 0 0 0
0.31 -1.27 1.52 0 0 0
0.31 -1.27 1.53 0 0 0
0.31 -1.27 1.54 0 0 0
0.31 -1.27 1.55 0 0 0
0.31 -1.27 1.56 0 0 0
0.31 -1.27 1.57 0 0 0
0.31 -1.27 1.58 0 0 0
0.31 -1.26 0.45 0 0 0
0.31 -1.26 0.46 0 0 0
0.31 -1.26 0.47 0 0 0
0.31 -1.26 0.48 0 0 0
0.31 -1.26 0.49 0 0 0
0.31 -1.26 0.50 0 0 0
0.31 -1.26 0.51 0 0 0
0.31 -1.26 0.52 0 0 0
0.31 -1.26 0.57 0 0 0
0.31 -1.26 0.63 0 0 0
0.31 -1.26 0.64 0 0 0
0.31 -1.26 0.65 0 0 0
0.31 -1.26 0.66 0 0 0
0.31 -1.26 0.67 0 0 0
0.31 -1.26 0.68 0 0 0
0.31 -1.26 0.69 0 0 0
0.31 -1.26 0.70 0 0 0
0.31 -1.26 0.71 0 0 0
0.31 -1.26 0.72 0 0 0
0.31 -1.26 0.73 0 0 0
0.31 -1.26 0.74 0 0 0
0.31 -1.26 0.75 0 0 0
0.31 -1.26 0.76 0 0 0
0.31 -1.26 0.77 0 0 0
0.31 -1.26 0.78 0 0 0
0.31 -1.26 0.79 0 0 0
0.31 -1.26 0.80 0 0 0
0.31 -1.26 0.81 0 0 0
0.31 -1.26 0.82 0 0 0
0.31 -1.26 0.83 0 0 0
0.31 -1.26 0.84 0 0 0
0.31 -1.26 0.85 0 0 0
0.31 -1.26 0.86 0 0 0
0.31 -1.26 0.87 0 0 0
0.31 -1.26 0.88 0 0 0
0.31 -1.26 0.89 0 0 0
0.31 -1.26 0.90 0 0 0
0.31 -1.26 0.91 0 0 0
0.31 -1.26 0.92 0 0 0
0.31 -1.26 1.19 0 0 0
0.31 -1.26 1.20 0 0 0
0.31 -1.26 1.21 0 0 0
0.31 -1.26 1.22 0 0 0
0.31 -1.26 1.23 0 0 0
0.31 -1.26 1.24 0 0 0
0.31 -1.26 1.25 0 0 0
0.31 -1.26 1.26 0 0 0
0.31 -1.26 1.27 0 0 0
0.31 -1.26 1.28 0 0 0
0.31 -1.26 1.29 0 0 0
0.31 -1.26 1.30 0 0 0
0.31 -1.26 1.31 0 0 0
0.31 -1.26 1.32 0 0 0
0.31 -1.26 1.33 0 0 0
0.31 -1.26 1.34 0 0 0
0.31 -1.26 1.35 0 0 0
0.31 -1.26 1.36 0 0 0
0.31 -1.26 1.37 0 0 0
0.31 -1.26 1.38 0 0 0
0.31 -1.26 1.39 0 0 0
0.31 -1.26 1.40 0 0 0
0.31 -1.26 1.41 0 0 0
0.31 -1.26 1.42 0 0 0
0.31 -1.26 1.43 0 0 0
0.31 -1.26 1.44 0 0 0
0.31 -1.26 1.45 0 0 0
0.31 -1.26 1.51 0 0 0
0.31 -1.26 1.52 0 0 0
0.31 -1.26 1.53 0 0 0
0.31 -1.26 1.54 0 0 0
0.31 -1.26 1.55 0 0 0
0.31 -1.26 1.56 0 0 0
0.31 -1.26 1.57 0 0 0
0.31 -1.26 1.58 0 0 0
0.31 -1.26 1.59 0 0 0
0.31 -1.26 1.60 0 0 0
0.31 -1.25 0.49 0 0 0
0.31 -1.25 0.50 0 0 0
0.31 -1.25 0.51 0 0 0
0.31 -1.25 0.64 0 0 0
0.31 -1.25 0.65 0 0 0
0.31 -1.25 0.66 0 0 0
0.31 -1.25 0.67 0 0 0
0.31 -1.25 0.68 0 0 0
0.31 -1.25 0.69 0 0 0
0.31 -1.25 0.70 0 0 0
0.31 -1.25 0.71 0 0 0
0.31 -1.25 0.72 0 0 0
0.31 -1.25 0.73 0 0 0
0.31 -1.25 0.74 0 0 0
0.31 -1.25 0.75 0 0 0
0.31 -1.25 0.76 0 0 0
0.31 -1.25 0.77 0 0 0
0.31 -1.25 0.78 0 0 0
0.31 -1.25 0.79 0 0 0
0.31 -1.25 0.80 0 0 0
0.31 -1.25 0.81 0 0 0
0.31 -1.25 0.82 0 0 0
0.31 -1.25 0.83 0 0 0
0.31 -1.25 0.84 0 0 0
0.31 -1.25 0.85 0 0 0
0.31 -1.25 0.86 0 0 0
0.31 -1.25 1.22 0 0 0
0.31 -1.25 1.23 0 0 0
0.31 -1.25 1.24 0 0 0
0.31 -1.25 1.25 0 0 0
0.31 -1.25 1.26 0 0 0
0.31 -1.25 1.27 0 0 0
0.31 -1.25 1.28 0 0 0
0.31 -1.25 1.29 0 0 0
0.31 -1.25 1.30 0 0 0
0.31 -1.25 1.31 0 0 0
0.31 -1.25 1.32 0 0 0
0.31 -1.25 1.33 0 0 0
0.31 -1.25 1.34 0 0 0
0.31 -1.25 1.35 0 0 0
0.31 -1.25 1.36 0 0 0
0.31 -1.25 1.37 0 0 0
0.31 -1.25 1.38 0 0 0
0.31 -1.25 1.39 0 0 0
0.31 -1.25 1.40 0 0 0
0.31 -1.25 1.41 0 0 0
0.31 -1.25 1.42 0 0 0
0.31 -1.25 1.43 0 0 0
0.31 -1.25 1.44 0 0 0
0.31 -1.25 1.45 0 0 0
0.31 -1.25 1.51 0 0 0
0.31 -1.25 1.52 0 0 0
0.31 -1.25 1.53 0 0 0
0.31 -1.25 1.54 0 0 0
0.31 -1.25 1.55 0 0 0
0.31 -1.25 1.56 0 0 0
0.31 -1.25 1.57 0 0 0
0.31 -1.25 1.58 0 0 0
0.31 -1.25 1.59 0 0 0
0.31 -1.25 1.60 0 0 0
0.31 -1.24 0.64 0 0 0
0.31 -1.24 0.65 0 0 0
0.31 -1.24 0.66 0 0 0
0.31 -1.24 0.67 0 0 0
0.31 -1.24 0.68 0 0 0
0.31 -1.24 0.69 0 0 0
0.31 -1.24 0.70 0 0 0
0.31 -1.24 0.71 0 0 0
0.31 -1.24 0.72 0 0 0
0.31 -1.24 0.73 0 0 0
0.31 -1.24 0.74 0 0 0
0.31 -1.24 0.75 0 0 0
0.31 -1.24 0.76 0 0 0
0.31 -1.24 0.77 0 0 0
0.31 -1.24 0.78 0 0 0
0.31 -1.24 0.79 0 0 0
0.31 -1.24 1.23 0 0 0
0.31 -1.24 1.24 0 0 0
0.31 -1.24 1.25 0 0 0
0.31 -1.24 1.26 0 0 0
0.31 -1.24 1.27 0 0 0
0.31 -1.24 1.28 0 0 0
0.31 -1.24 1.29 0 0 0
0.31 -1.24 1.30 0 0 0
0.31 -1.24 1.31 0 0 0
0.31 -1.24 1.32 0 0 0
0.31 -1.24 1.33 0 0 0
0.31 -1.24 1.34 0 0 0
0.31 -1.24 1.35 0 0 0
0.31 -1.24 1.36 0 0 0
0.31 -1.24 1.37 0 0 0
0.31 -1.24 1.38 0 0 0
0.31 -1.24 1.39 0 0 0
0.31 -1.24 1.40 0 0 0
0.31 -1.24 1.41 0 0 0
0.31 -1.24 1.42 0 0 0
0.31 -1.24 1.43 0 0 0
0.31 -1.24 1.44 0 0 0
0.31 -1.24 1.45 0 0 0
0.31 -1.24 1.51 0 0 0
0.31 -1.24 1.52 0 0 0
0.31 -1.24 1.53 0 0 0
0.31 -1.24 1.54 0 0 0
0.31 -1.24 1.55 0 0 0
0.31 -1.24 1.56 0 0 0
0.31 -1.24 1.57 0 0 0
0.31 -1.24 1.58 0 0 0
0.31 -1.24 1.59 0 0 0
0.31 -1.24 1.60 0 0 0
0.31 -1.24 1.61 0 0 0
0.31 -1.23 1.26 0 0 0
0.31 -1.23 1.27 0 0 0
0.31 -1.23 1.28 0 0 0
0.31 -1.23 1.29 0 0 0
0.31 -1.23 1.30 0 0 0
0.31 -1.23 1.31 0 0 0
0.31 -1.23 1.32 0 0 0
0.31 -1.23 1.33 0 0 0
0.31 -1.23 1.34 0 0 0
0.31 -1.23 1.35 0 0 0
0.31 -1.23 1.36 0 0 0
0.31 -1.23 1.37 0 0 0
0.31 -1.23 1.38 0 0 0
0.31 -1.23 1.39 0 0 0
0.31 -1.23 1.40 0 0 0
0.31 -1.23 1.41 0 0 0
0.31 -1.23 1.42 0 0 0
0.31 -1.23 1.43 0 0 0
0.31 -1.23 1.44 0 0 0
0.31 -1.23 1.51 0 0 0
0.31 -1.23 1.52 0 0 0
0.31 -1.23 1.53 0 0 0
0.31 -1.23 1.54 0 0 0
0.31 -1.23 1.55 0 0 0
0.31 -1.23 1.56 0 0 0
0.31 -1.23 1.57 0 0 0
0.31 -1.23 1.58 0 0 0
0.31 -1.23 1.59 0 0 0
0.31 -1.23 1.60 0 0 0
0.31 -1.23 1.61 0 0 0
0.31 -1.23 1.62 0 0 0
0.31 -1.22 1.29 0 0 0
0.31 -1.22 1.30 0 0 0
0.31 -1.22 1.31 0 0 0
0.31 -1.22 1.32 0 0 0
0.31 -1.22 1.33 0 0 0
0.31 -1.22 1.34 0 0 0
0.31 -1.22 1.35 0 0 0
0.31 -1.22 1.36 0 0 0
0.31 -1.22 1.37 0 0 0
0.31 -1.22 1.38 0 0 0
0.31 -1.22 1.39 0 0 0
0.31 -1.22 1.40 0 0 0
0.31 -1.22 1.41 0 0 0
0.31 -1.22 1.42 0 0 0
0.31 -1.22 1.50 0 0 0
0.31 -1.22 1.51 0 0 0
0.31 -1.22 1.52 0 0 0
0.31 -1.22 1.53 0 0 0
0.31 -1.22 1.54 0 0 0
0.31 -1.22 1.55 0 0 0
0.31 -1.22 1.56 0 0 0
0.31 -1.22 1.57 0 0 0
0.31 -1.22 1.58 0 0 0
0.31 -1.22 1.59 0 0 0
0.31 -1.22 1.60 0 0 0
0.31 -1.22 1.61 0 0 0
0.31 -1.22 1.62 0 0 0
0.31 -1.22 1.63 0 0 0
0.31 -1.21 1.50 0 0 0
0.31 -1.21 1.51 0 0 0
0.31 -1.21 1.52 0 0 0
0.31 -1.21 1.53 0 0 0
0.31 -1.21 1.54 0 0 0
0.31 -1.21 1.55 0 0 0
0.31 -1.21 1.56 0 0 0
0.31 -1.21 1.57 0 0 0
0.31 -1.21 1.58 0 0 0
0.31 -1.21 1.59 0 0 0
0.31 -1.21 1.60 0 0 0
0.31 -1.21 1.61 0 0 0
0.31 -1.21 1.62 0 0 0
0.31 -1.21 1.63 0 0 0
0.31 -1.20 1.50 0 0 0
0.31 -1.20 1.51 0 0 0
0.31 -1.20 1.52 0 0 0
0.31 -1.20 1.53 0 0 0
0.31 -1.20 1.54 0 0 0
0.31 -1.20 1.55 0 0 0
0.31 -1.20 1.56 0 0 0
0.31 -1.20 1.57 0 0 0
0.31 -1.20 1.58 0 0 0
0.31 -1.20 1.59 0 0 0
0.31 -1.20 1.60 0 0 0
0.31 -1.20 1.61 0 0 0
0.31 -1.20 1.62 0 0 0
0.31 -1.20 1.63 0 0 0
0.31 -1.19 1.50 0 0 0
0.31 -1.19 1.51 0 0 0
0.31 -1.19 1.52 0 0 0
0.31 -1.19 1.53 0 0 0
0.31 -1.19 1.54 0 0 0
0.31 -1.19 1.55 0 0 0
0.31 -1.19 1.56 0 0 0
0.31 -1.19 1.57 0 0 0
0.31 -1.19 1.58 0 0 0
0.31 -1.19 1.59 0 0 0
0.31 -1.19 1.60 0 0 0
0.31 -1.19 1.61 0 0 0
0.31 -1.19 1.62 0 0 0
0.31 -1.19 1.63 0 0 0
0.31 -1.18 1.49 0 0 0
0.31 -1.18 1.50 0 0 0
0.31 -1.18 1.51 0 0 0
0.31 -1.18 1.52 0 0 0
0.31 -1.18 1.53 0 0 0
0.31 -1.18 1.54 0 0 0
0.31 -1.18 1.55 0 0 0
0.31 -1.18 1.56 0 0 0
0.31 -1.18 1.57 0 0 0
0.31 -1.18 1.58 0 0 0
0.31 -1.18 1.59 0 0 0
0.31 -1.18 1.60 0 0 0
0.31 -1.18 1.61 0 0 0
0.31 -1.18 1.62 0 0 0
0.31 -1.18 1.63 0 0 0
0.31 -1.17 1.51 0 0 0
0.31 -1.17 1.52 0 0 0
0.31 -1.17 1.53 0 0 0
0.31 -1.17 1.54 0 0 0
0.31 -1.17 1.55 0 0 0
0.31 -1.17 1.56 0 0 0
0.31 -1.17 1.57 0 0 0
0.31 -1.17 1.58 0 0 0
0.31 -1.17 1.59 0 0 0
0.31 -1.17 1.60 0 0 0
0.31 -1.17 1.61 0 0 0
0.31 -1.17 1.62 0 0 0
0.31 -1.16 1.51 0 0 0
0.31 -1.16 1.52 0 0 0
0.31 -1.16 1.53 0 0 0
0.31 -1.16 1.54 0 0 0
0.31 -1.16 1.55 0 0 0
0.31 -1.16 1.56 0 0 0
0.31 -1.16 1.57 0 0 0
0.31 -1.16 1.58 0 0 0
0.31 -1.16 1.59 0 0 0
0.31 -1.15 1.53 0 0 0
0.31 -1.15 1.54 0 0 0
0.31 -1.15 1.55 0 0 0
0.31 -1.15 1.56 0 0 0
0.31 -1.15 1.57 0 0 0
0.31 -1.15 1.58 0 0 0
0.31 -1.15 1.59 0 0 0
0.31 -1.14 1.54 0 0 0
0.31 -1.14 1.55 0 0 0
0.31 -1.14 1.56 0 0 0
0.31 -1.14 1.57 0 0 0
0.31 -1.14 1.58 0 0 0
0.32 -1.56 0.49 0 0 0
0.32 -1.56 0.50 0 0 0
0.32 -1.56 1.00 0 0 0
0.32 -1.56 1.01 0 0 0
0.32 -1.56 1.02 0 0 0
0.32 -1.56 1.03 0 0 0
0.32 -1.56 1.04 0 0 0
0.32 -1.56 1.05 0 0 0
0.32 -1.56 1.06 0 0 0
0.32 -1.56 1.07 0 0 0
0.32 -1.56 1.08 0 0 0
0.32 -1.56 1.09 0 0 0
0.32 -1.56 1.10 0 0 0
0.32 -1.56 1.11 0 0 0
0.32 -1.56 1.12 0 0 0
0.32 -1.55 0.29 0 0 0
0.32 -1.55 0.30 0 0 0
0.32 -1.55 0.31 0 0 0
0.32 -1.55 0.32 0 0 0
0.32 -1.55 0.47 0 0 0
0.32 -1.55 0.48 0 0 0
0.32 -1.55 0.49 0 0 0
0.32 -1.55 0.50 0 0 0
0.32 -1.55 0.51 0 0 0
0.32 -1.55 0.95 0 0 0
0.32 -1.55 0.96 0 0 0
0.32 -1.55 0.97 0 0 0
0.32 -1.55 0.98 0 0 0
0.32 -1.55 0.99 0 0 0
0.32 -1.55 1.00 0 0 0
0.32 -1.55 1.01 0 0 0
0.32 -1.55 1.02 0 0 0
0.32 -1.55 1.03 0 0 0
0.32 -1.55 1.04 0 0 0
0.32 -1.55 1.05 0 0 0
0.32 -1.55 1.06 0 0 0
0.32 -1.55 1.07 0 0 0
0.32 -1.55 1.08 0 0 0
0.32 -1.55 1.09 0 0 0
0.32 -1.55 1.10 0 0 0
0.32 -1.55 1.11 0 0 0
0.32 -1.55 1.12 0 0 0
0.32 -1.55 1.13 0 0 0
0.32 -1.55 1.14 0 0 0
0.32 -1.55 1.15 0 0 0
0.32 -1.55 1.22 0 0 0
0.32 -1.55 1.23 0 0 0
0.32 -1.54 0.29 0 0 0
0.32 -1.54 0.30 0 0 0
0.32 -1.54 0.31 0 0 0
0.32 -1.54 0.32 0 0 0
0.32 -1.54 0.33 0 0 0
0.32 -1.54 0.46 0 0 0
0.32 -1.54 0.47 0 0 0
0.32 -1.54 0.48 0 0 0
0.32 -1.54 0.49 0 0 0
0.32 -1.54 0.50 0 0 0
0.32 -1.54 0.51 0 0 0
0.32 -1.54 0.52 0 0 0
0.32 -1.54 0.93 0 0 0
0.32 -1.54 0.94 0 0 0
0.32 -1.54 0.95 0 0 0
0.32 -1.54 0.96 0 0 0
0.32 -1.54 0.97 0 0 0
0.32 -1.54 0.98 0 0 0
0.32 -1.54 0.99 0 0 0
0.32 -1.54 1.00 0 0 0
0.32 -1.54 1.01 0 0 0
0.32 -1.54 1.02 0 0 0
0.32 -1.54 1.03 0 0 0
0.32 -1.54 1.04 0 0 0
0.32 -1.54 1.05 0 0 0
0.32 -1.54 1.06 0 0 0
0.32 -1.54 1.07 0 0 0
0.32 -1.54 1.08 0 0 0
0.32 -1.54 1.09 0 0 0
0.32 -1.54 1.10 0 0 0
0.32 -1.54 1.11 0 0 0
0.32 -1.54 1.12 0 0 0
0.32 -1.54 1.13 0 0 0
0.32 -1.54 1.14 0 0 0
0.32 -1.54 1.15 0 0 0
0.32 -1.54 1.16 0 0 0
0.32 -1.54 1.17 0 0 0
0.32 -1.54 1.18 0 0 0
0.32 -1.54 1.19 0 0 0
0.32 -1.54 1.20 0 0 0
0.32 -1.54 1.21 0 0 0
0.32 -1.54 1.22 0 0 0
0.32 -1.54 1.23 0 0 0
0.32 -1.54 1.24 0 0 0
0.32 -1.53 0.30 0 0 0
0.32 -1.53 0.31 0 0 0
0.32 -1.53 0.32 0 0 0
0.32 -1.53 0.33 0 0 0
0.32 -1.53 0.34 0 0 0
0.32 -1.53 0.35 0 0 0
0.32 -1.53 0.36 0 0 0
0.32 -1.53 0.42 0 0 0
0.32 -1.53 0.43 0 0 0
0.32 -1.53 0.44 0 0 0
0.32 -1.53 0.45 0 0 0
0.32 -1.53 0.46 0 0 0
0.32 -1.53 0.47 0 0 0
0.32 -1.53 0.48 0 0 0
0.32 -1.53 0.49 0 0 0
0.32 -1.53 0.50 0 0 0
0.32 -1.53 0.51 0 0 0
0.32 -1.53 0.52 0 0 0
0.32 -1.53 0.53 0 0 0
0.32 -1.53 0.54 0 0 0
0.32 -1.53 0.55 0 0 0
0.32 -1.53 0.56 0 0 0
0.32 -1.53 0.88 0 0 0
0.32 -1.53 0.89 0 0 0
0.32 -1.53 0.90 0 0 0
0.32 -1.53 0.91 0 0 0
0.32 -1.53 0.92 0 0 0
0.32 -1.53 0.93 0 0 0
0.32 -1.53 0.94 0 0 0
0.32 -1.53 0.95 0 0 0
0.32 -1.53 0.96 0 0 0
0.32 -1.53 0.97 0 0 0
0.32 -1.53 0.98 0 0 0
0.32 -1.53 0.99 0 0 0
0.32 -1.53 1.00 0 0 0
0.32 -1.53 1.01 0 0 0
0.32 -1.53 1.02 0 0 0
0.32 -1.53 1.03 0 0 0
0.32 -1.53 1.04 0 0 0
0.32 -1.53 1.05 0 0 0
0.32 -1.53 1.06 0 0 0
0.32 -1.53 1.07 0 0 0
0.32 -1.53 1.08 0 0 0
0.32 -1.53 1.09 0 0 0
0.32 -1.53 1.10 0 0 0
0.32 -1.53 1.11 0 0 0
0.32 -1.53 1.12 0 0 0
0.32 -1.53 1.13 0 0 0
0.32 -1.53 1.14 0 0 0
0.32 -1.53 1.15 0 0 0
0.32 -1.53 1.16 0 0 0
0.32 -1.53 1.17 0 0 0
0.32 -1.53 1.18 0 0 0
0.32 -1.53 1.19 0 0 0
0.32 -1.53 1.20 0 0 0
0.32 -1.53 1.21 0 0 0
0.32 -1.53 1.22 0 0 0
0.32 -1.53 1.23 0 0 0
0.32 -1.53 1.24 0 0 0
0.32 -1.53 1.25 0 0 0
0.32 -1.53 1.29 0 0 0
0.32 -1.53 1.30 0 0 0
0.32 -1.52 0.30 0 0 0
0.32 -1.52 0.31 0 0 0
0.32 -1.52 0.32 0 0 0
0.32 -1.52 0.33 0 0 0
0.32 -1.52 0.34 0 0 0
0.32 -1.52 0.35 0 0 0
0.32 -1.52 0.36 0 0 0
0.32 -1.52 0.37 0 0 0
0.32 -1.52 0.41 0 0 0
0.32 -1.52 0.42 0 0 0
0.32 -1.52 0.43 0 0 0
0.32 -1.52 0.44 0 0 0
0.32 -1.52 0.45 0 0 0
0.32 -1.52 0.46 0 0 0
0.32 -1.52 0.47 0 0 0
0.32 -1.52 0.48 0 0 0
0.32 -1.52 0.49 0 0 0
0.32 -1.52 0.50 0 0 0
0.32 -1.52 0.51 0 0 0
0.32 -1.52 0.52 0 0 0
0.32 -1.52 0.53 0 0 0
0.32 -1.52 0.54 0 0 0
0.32 -1.52 0.55 0 0 0
0.32 -1.52 0.56 0 0 0
0.32 -1.52 0.57 0 0 0
0.32 -1.52 0.58 0 0 0
0.32 -1.52 0.61 0 0 0
0.32 -1.52 0.62 0 0 0
0.32 -1.52 0.63 0 0 0
0.32 -1.52 0.64 0 0 0
0.32 -1.52 0.65 0 0 0
0.32 -1.52 0.66 0 0 0
0.32 -1.52 0.67 0 0 0
0.32 -1.52 0.68 0 0 0
0.32 -1.52 0.82 0 0 0
0.32 -1.52 0.83 0 0 0
0.32 -1.52 0.84 0 0 0
0.32 -1.52 0.85 0 0 0
0.32 -1.52 0.86 0 0 0
0.32 -1.52 0.87 0 0 0
0.32 -1.52 0.88 0 0 0
0.32 -1.52 0.89 0 0 0
0.32 -1.52 0.90 0 0 0
0.32 -1.52 0.91 0 0 0
0.32 -1.52 0.92 0 0 0
0.32 -1.52 0.93 0 0 0
0.32 -1.52 0.94 0 0 0
0.32 -1.52 0.95 0 0 0
0.32 -1.52 0.96 0 0 0
0.32 -1.52 0.97 0 0 0
0.32 -1.52 0.98 0 0 0
0.32 -1.52 0.99 0 0 0
0.32 -1.52 1.00 0 0 0
0.32 -1.52 1.01 0 0 0
0.32 -1.52 1.02 0 0 0
0.32 -1.52 1.03 0 0 0
0.32 -1.52 1.04 0 0 0
0.32 -1.52 1.05 0 0 0
0.32 -1.52 1.06 0 0 0
0.32 -1.52 1.07 0 0 0
0.32 -1.52 1.08 0 0 0
0.32 -1.52 1.09 0 0 0
0.32 -1.52 1.10 0 0 0
0.32 -1.52 1.11 0 0 0
0.32 -1.52 1.12 0 0 0
0.32 -1.52 1.13 0 0 0
0.32 -1.52 1.14 0 0 0
0.32 -1.52 1.15 0 0 0
0.32 -1.52 1.16 0 0 0
0.32 -1.52 1.17 0 0 0
0.32 -1.52 1.18 0 0 0
0.32 -1.52 1.19 0 0 0
0.32 -1.52 1.20 0 0 0
0.32 -1.52 1.21 0 0 0
0.32 -1.52 1.22 0 0 0
0.32 -1.52 1.23 0 0 0
0.32 -1.52 1.24 0 0 0
0.32 -1.52 1.25 0 0 0
0.32 -1.52 1.26 0 0 0
0.32 -1.52 1.27 0 0 0
0.32 -1.52 1.28 0 0 0
0.32 -1.52 1.29 0 0 0
0.32 -1.52 1.30 0 0 0
0.32 -1.52 1.31 0 0 0
0.32 -1.52 1.32 0 0 0
0.32 -1.51 0.31 0 0 0
0.32 -1.51 0.32 0 0 0
0.32 -1.51 0.33 0 0 0
0.32 -1.51 0.34 0 0 0
0.32 -1.51 0.35 0 0 0
0.32 -1.51 0.36 0 0 0
0.32 -1.51 0.37 0 0 0
0.32 -1.51 0.38 0 0 0
0.32 -1.51 0.39 0 0 0
0.32 -1.51 0.40 0 0 0
0.32 -1.51 0.41 0 0 0
0.32 -1.51 0.42 0 0 0
0.32 -1.51 0.43 0 0 0
0.32 -1.51 0.44 0 0 0
0.32 -1.51 0.45 0 0 0
0.32 -1.51 0.46 0 0 0
0.32 -1.51 0.47 0 0 0
0.32 -1.51 0.48 0 0 0
0.32 -1.51 0.49 0 0 0
0.32 -1.51 0.50 0 0 0
0.32 -1.51 0.51 0 0 0
0.32 -1.51 0.52 0 0 0
0.32 -1.51 0.53 0 0 0
0.32 -1.51 0.54 0 0 0
0.32 -1.51 0.55 0 0 0
0.32 -1.51 0.56 0 0 0
0.32 -1.51 0.57 0 0 0
0.32 -1.51 0.58 0 0 0
0.32 -1.51 0.59 0 0 0
0.32 -1.51 0.60 0 0 0
0.32 -1.51 0.61 0 0 0
0.32 -1.51 0.62 0 0 0
0.32 -1.51 0.63 0 0 0
0.32 -1.51 0.64 0 0 0
0.32 -1.51 0.65 0 0 0
0.32 -1.51 0.66 0 0 0
0.32 -1.51 0.67 0 0 0
0.32 -1.51 0.68 0 0 0
0.32 -1.51 0.69 0 0 0
0.32 -1.51 0.70 0 0 0
0.32 -1.51 0.71 0 0 0
0.32 -1.51 0.72 0 0 0
0.32 -1.51 0.73 0 0 0
0.32 -1.51 0.74 0 0 0
0.32 -1.51 0.75 0 0 0
0.32 -1.51 0.76 0 0 0
0.32 -1.51 0.77 0 0 0
0.32 -1.51 0.78 0 0 0
0.32 -1.51 0.79 0 0 0
0.32 -1.51 0.80 0 0 0
0.32 -1.51 0.81 0 0 0
0.32 -1.51 0.82 0 0 0
0.32 -1.51 0.83 0 0 0
0.32 -1.51 0.84 0 0 0
0.32 -1.51 0.85 0 0 0
0.32 -1.51 0.86 0 0 0
0.32 -1.51 0.87 0 0 0
0.32 -1.51 0.88 0 0 0
0.32 -1.51 0.89 0 0 0
0.32 -1.51 0.90 0 0 0
0.32 -1.51 0.91 0 0 0
0.32 -1.51 0.92 0 0 0
0.32 -1.51 0.93 0 0 0
0.32 -1.51 0.94 0 0 0
0.32 -1.51 0.95 0 0 0
0.32 -1.51 0.96 0 0 0
0.32 -1.51 0.97 0 0 0
0.32 -1.51 0.98 0 0 0
0.32 -1.51 0.99 0 0 0
0.32 -1.51 1.00 0 0 0
0.32 -1.51 1.01 0 0 0
0.32 -1.51 1.02 0 0 0
0.32 -1.51 1.03 0 0 0
0.32 -1.51 1.04 0 0 0
0.32 -1.51 1.05 0 0 0
0.32 -1.51 1.06 0 0 0
0.32 -1.51 1.07 0 0 0
0.32 -1.51 1.08 0 0 0
0.32 -1.51 1.09 0 0 0
0.32 -1.51 1.10 0 0 0
0.32 -1.51 1.11 0 0 0
0.32 -1.51 1.12 0 0 0
0.32 -1.51 1.13 0 0 0
0.32 -1.51 1.14 0 0 0
0.32 -1.51 1.15 0 0 0
0.32 -1.51 1.16 0 0 0
0.32 -1.51 1.17 0 0 0
0.32 -1.51 1.18 0 0 0
0.32 -1.51 1.19 0 0 0
0.32 -1.51 1.20 0 0 0
0.32 -1.51 1.21 0 0 0
0.32 -1.51 1.22 0 0 0
0.32 -1.51 1.23 0 0 0
0.32 -1.51 1.24 0 0 0
0.32 -1.51 1.25 0 0 0
0.32 -1.51 1.26 0 0 0
0.32 -1.51 1.27 0 0 0
0.32 -1.51 1.28 0 0 0
0.32 -1.51 1.29 0 0 0
0.32 -1.51 1.30 0 0 0
0.32 -1.51 1.31 0 0 0
0.32 -1.51 1.32 0 0 0
0.32 -1.51 1.33 0 0 0
0.32 -1.50 0.31 0 0 0
0.32 -1.50 0.32 0 0 0
0.32 -1.50 0.33 0 0 0
0.32 -1.50 0.34 0 0 0
0.32 -1.50 0.35 0 0 0
0.32 -1.50 0.36 0 0 0
0.32 -1.50 0.37 0 0 0
0.32 -1.50 0.38 0 0 0
0.32 -1.50 0.39 0 0 0
0.32 -1.50 0.40 0 0 0
0.32 -1.50 0.41 0 0 0
0.32 -1.50 0.42 0 0 0
0.32 -1.50 0.43 0 0 0
0.32 -1.50 0.44 0 0 0
0.32 -1.50 0.45 0 0 0
0.32 -1.50 0.46 0 0 0
0.32 -1.50 0.47 0 0 0
0.32 -1.50 0.48 0 0 0
0.32 -1.50 0.49 0 0 0
0.32 -1.50 0.50 0 0 0
0.32 -1.50 0.51 0 0 0
0.32 -1.50 0.52 0 0 0
0.32 -1.50 0.53 0 0 0
0.32 -1.50 0.54 0 0 0
0.32 -1.50 0.55 0 0 0
0.32 -1.50 0.56 0 0 0
0.32 -1.50 0.57 0 0 0
0.32 -1.50 0.58 0 0 0
0.32 -1.50 0.59 0 0 0
0.32 -1.50 0.60 0 0 0
0.32 -1.50 0.61 0 0 0
0.32 -1.50 0.62 0 0 0
0.32 -1.50 0.63 0 0 0
0.32 -1.50 0.64 0 0 0
0.32 -1.50 0.65 0 0 0
0.32 -1.50 0.66 0 0 0
0.32 -1.50 0.67 0 0 0
0.32 -1.50 0.68 0 0 0
0.32 -1.50 0.69 0 0 0
0.32 -1.50 0.70 0 0 0
0.32 -1.50 0.71 0 0 0
0.32 -1.50 0.72 0 0 0
0.32 -1.50 0.73 0 0 0
0.32 -1.50 0.74 0 0 0
